ncols         96
nrows         72
xllcorner     473195
yllcorner     4286505
cellsize      50
NODATA_value  -9999
181.7054 182.8257 193.5975 201.3701 201.7535 200.4999 200.3857 206.6831 210.3741 208.9941 207.6748 198.7342 185.3441 177.447 166.0203 153.7212 148.0251 144.7167 139.5601 139.4885 133.2453 123.1009 114.7932 91.45002 87.15263 92.1742 101.4115 112.728 120.3437 130.4551 138.1804 146.4716 154.7458 160.6942 165.2127 167.7279 169.1053 166.0797 165.4774 170.5531 170.1435 166.8087 168.892 169.3919 166.7305 167.5778 175.6123 182.9651 178.2742 168.856 165.15 163.5848 164.0246 168.2329 174.8697 165.0844 175.5192 178.3051 171.553 165.8143 165.9342 165.4474 177.1877 180.2713 168.9553 157.2192 135.5316 136.1859 142.6124 153.9879 158.8669 152.2654 148.3225 149.6741 153.4823 159.1586 169.6324 157.3493 150.1093 149.5836 142.5144 137.7072 130.4465 117.2697 111.8551 109.8809 112.5924 119.9115 125.6944 135.3244 137.0367 143.061 146.895 144.0161 147.6098 148.3897 
187.4914 189.6389 194.7589 197.5742 200.7217 200.116 198.7096 206.0218 207.1341 210.9724 211.4635 200.911 186.2832 178.5612 172.4086 163.6422 163.2468 160.3463 152.7222 149.2741 141.3791 130.1673 119.5318 86.60548 90.50022 91.05099 93.3402 103.5609 110.1109 120.3907 131.6862 142.2061 150.98 159.8863 162.8593 163.8204 161.1573 158.9609 156.2704 159.6079 163.1176 161.1433 162.2 163.7594 162.7862 166.6556 169.577 173.7574 169.5943 165.455 162.1525 162.0197 164.4608 166.7952 168.1439 167.0517 168.2324 167.0309 159.0183 157.3846 160.2827 164.7823 171.2946 171.9868 167.8238 156.3651 145.1705 143.1758 144.1225 147.7854 153.6402 149.42 147.549 141.3795 147.8285 151.5511 160.7102 161.9875 155.8339 149.842 143.2836 140.0484 130.576 110.7307 102.3134 104.9494 118.293 126.3765 127.809 127.508 125.3261 130.8394 140.3918 140.9133 140.9882 142.0513 
190.7859 188.5536 183.9474 186.1048 189.9435 189.787 192.6603 200.4785 206.1869 210.2097 208.1779 204.7077 194.4398 185.4211 178.7734 174.8152 173.3524 171.6948 163.5578 155.9907 147.2977 129.4919 108.6472 98.26482 100.1561 97.6074 92.78289 97.16319 103.7527 112.0758 120.8853 128.7722 136.2886 147.4234 154.3442 152.1083 152.0659 154.6155 155.8824 155.5204 153.704 158.3354 163.3482 165.2901 166.5856 166.6036 169.865 171.2969 168.4494 163.716 164.8939 164.7418 161.2015 161.2632 161.7706 161.6532 166.6138 163.2758 157.9077 155.833 155.403 160.7868 165.8634 163.8561 155.9026 148.2701 143.227 143.2065 141.0855 145.1879 156.3356 159.912 153.2502 145.4499 145.8239 150.1722 151.4288 149.4215 146.4846 149.5692 145.5609 139.5677 129.5907 113.5028 100.6272 100.1235 121.2384 127.0565 122.9734 123.42 123.3828 128.2482 135.2559 140.9398 144.7211 145.7734 
186.6073 181.928 176.0146 179.4296 188.1217 187.6204 191.5222 195.655 200.2166 205.0086 204.7148 204.4529 204.0455 194.9781 187.0218 183.1395 180.4056 179.5829 173.9963 162.0051 151.3588 135.3855 121.7234 113.0459 107.1425 99.58958 92.26226 92.00127 100.1612 106.9667 113.1919 120.2955 125.8376 130.4124 139.0967 142.3869 144.9704 147.5653 152.2769 152.2683 151.3348 156.6884 165.8646 170.8567 173.6723 173.8528 173.5977 172.2189 170.1704 169.8101 167.2617 165.153 164.434 164.4867 166.2766 166.6167 165.3809 163.4294 162.8953 159.9134 158.5914 159.7093 166.771 162.6668 148.4583 144.0559 138.2217 142.3376 146.2 144.4891 151.3705 160.3469 159.7743 159.8109 158.5724 157.3748 157.0394 150.5458 145.2978 150.7167 144.0676 133.9877 129.6074 116.1233 101.7625 99.92918 116.4348 116.6617 115.8918 118.7353 126.0383 128.6247 135.0091 143.9117 150.6831 149.9486 
180.2069 175.7152 172.9106 178.2558 191.7926 194.2688 189.6143 188.126 193.1411 198.2292 199.1079 199.2154 200.9046 195.0039 188.6948 189.2847 187.1367 183.1208 179.4601 167.7607 151.79 139.2006 130.92 125.3218 114.9487 104.5242 92.82536 93.96697 95.68664 101.9904 107.7299 115.2372 122.1516 128.1384 133.29 136.7177 143.1284 143.359 144.2578 148.7417 153.2115 159.1066 164.6044 162.3693 164.489 164.1691 171.3089 172.281 172.6206 166.7506 162.2511 165.1208 165.0889 174.701 175.0278 169.8459 159.7883 162.6783 172.2314 170.5099 166.8826 169.5941 169.9654 165.1721 155.9891 142.3737 134.765 143.934 155.5054 150.9913 150.6365 155.5166 160.5525 158.8805 163.6135 156.0975 156.4906 141.5242 141.7302 141.1951 135.2278 125.7312 124.2705 117.8405 106.6734 95.28252 100.938 109.9438 117.6162 124.5292 126.125 122.8806 127.4973 141.8416 151.178 143.4677 
178.6268 176.6784 172.9297 180.2641 194.4464 202.9375 191.7482 187.9517 192.4947 194.607 194.6939 194.8387 193.6216 188.6405 183.9126 187.4349 190.7392 186.2693 177.6235 165.719 150.6245 137.3819 129.8738 121.137 115.3951 106.2492 100.8951 93.69675 96.15136 96.00398 100.0414 108.4488 121.1095 128.8246 132.8722 134.0324 142.7991 144.3744 146.0101 153.2165 160.5356 162.3758 158.4057 156.2785 154.6449 155.506 165.1082 170.6382 171.4822 166.0992 165.2758 164.8101 166.9082 172.1645 176.3044 169.6332 165.646 165.8913 169.4428 170.4881 167.1732 167.8518 161.8804 160.1573 159.683 146.2402 138.3264 140.3201 147.246 151.8882 142.3672 139.8426 152.9404 156.2738 164.6852 151.7452 138.2906 125.8356 127.43 125.7955 117.843 116.673 117.9025 111.143 99.36768 94.61426 98.21101 111.6037 122.7639 129.4387 129.1761 123.3411 126.4554 132.9283 136.7468 135.0146 
180.2797 175.0139 172.2415 186.1918 199.2492 208.5367 197.1176 187.0104 190.5623 190.0596 191.6944 187.8079 182.3172 180.741 180.1119 182.1595 185.8711 181.1835 171.0937 160.6807 149.1459 135.1848 128.2594 119.3067 107.3576 103.8385 105.7438 99.97027 94.8045 93.48875 94.28594 98.24481 117.135 130.5044 140.3588 142.7363 149.1355 152.828 151.8766 157.2728 163.6363 158.576 152.1639 152.6022 152.4995 152.4272 158.8684 160.7668 169.0749 173.3078 167.3958 170.3636 172.9442 174.1694 176.4 171.9925 166.9996 163.6897 163.5179 157.4877 154.8754 160.9374 155.6058 151.8632 154.6414 143.1637 142.7101 137.5469 139.5285 143.6831 140.8062 140.0389 142.9723 147.4285 145.2988 133.1192 123.2608 122.6125 119.2724 114.0341 113.8154 113.015 109.487 102.0818 88.9917 90.41044 102.651 119.328 127.9979 127.4693 124.9584 127.9064 129.4232 124.6177 124.0031 125.6283 
177.2989 170.2419 172.0941 186.794 189.9925 201.1914 198.6454 188.1322 190.0372 190.9135 193.1735 186.6909 178.8006 178.611 180.0996 178.0951 177.6179 175.993 174.9447 170.1957 160.7191 149.551 142.8782 131.8851 115.8765 107.5164 105.3111 98.39841 92.03183 92.38209 93.17149 93.32835 115.4642 129.9666 153.2771 170.3832 168.0942 168.3479 163.3287 164.7717 160.6078 153.1097 154.6068 155.2109 150.421 152.9991 152.9032 155.922 162.74 167.5104 173.1102 183.3444 179.1122 175.9881 165.4259 164.5733 157.9271 159.4127 157.5061 154.2501 144.4353 151.7647 153.9631 156.5251 145.6805 137.0561 137.1088 130.8379 136.2167 139.1987 128.731 129.9616 131.2315 129.6328 132.7648 126.8467 118.5691 116.4586 114.3497 110.366 107.5374 107.8152 101.7844 91.55115 76.8367 81.29993 96.6252 119.2785 130.7831 131.6254 123.6185 127.9046 131.1765 125.679 122.2745 117.6639 
169.903 165.188 169.7345 179.4771 180.0134 190.7375 198.9108 193.4869 189.7631 192.9507 190.4427 186.9476 181.978 180.1774 176.4637 173.0996 175.7703 176.6655 174.3715 170.6398 164.4579 159.8138 153.4438 142.0148 127.0092 113.2574 106.1885 98.77181 91.20215 91.09815 91.6404 88.75034 108.8748 129.7278 159.0264 170.4802 176.0858 174.7292 180.6166 172.774 158.7139 151.9634 158.157 160.6923 150.9026 150.5983 155.0435 152.5503 162.2678 167.6056 166.5714 183.641 180.8564 165.4111 158.1934 157.3722 153.9803 157.0146 162.0383 161.1704 152.3191 152.7267 149.5425 143.8525 138.5423 134.1925 129.5191 124.8246 128.7355 129.8208 121.8534 115.4691 113.5764 117.4283 131.6732 137.3947 120.8937 114.7858 112.1966 108.2552 105.1469 104.9734 96.00663 88.86263 75.08563 83.29673 88.55986 112.3667 130.3149 134.633 129.3746 127.4212 130.6982 128.3166 122.5336 110.7597 
171.6724 169.9962 171.3792 176.1742 179.1555 182.6361 188.3685 189.2588 187.2924 188.7238 188.2698 187.21 183.8687 181.133 175.5165 172.3826 177.0198 175.4765 169.823 168.3166 162.4922 155.2789 153.7715 149.184 135.1161 116.4317 104.7709 98.64563 90.27208 88.54047 79.87457 80.4713 94.9026 120.2317 147.342 162.3514 172.2268 179.7753 176.9674 164.4775 158.3258 155.0899 155.1288 157.4963 151.1089 146.679 142.4466 149.1053 157.0539 161.4377 165.6146 172.5377 167.6398 163.7023 158.864 155.2578 156.7704 156.5419 162.137 167.4331 159.378 151.659 153.0984 144.4086 140.1703 134.7433 130.75 125.1973 127.4822 124.046 118.1683 112.0899 112.4617 120.8907 130.9929 137.64 126.3525 121.9735 117.1583 112.4119 108.6405 107.8374 101.0192 95.79951 83.26076 79.93585 92.38869 119.9836 134.349 131.7 135.4738 129.8148 123.781 116.2977 114.5549 107.1472 
170.5276 174.566 172.7431 174.2775 185.9471 189.582 184.8556 181.0273 180.871 182.4962 183.3434 185.27 182.3575 179.5795 174.8298 169.8051 172.8435 171.7553 170.0827 167.0768 159.8397 152.7696 145.4478 144.0081 133.0716 115.2379 102.783 100.1811 96.31616 88.55823 75.4642 79.84885 88.99485 109.672 139.1712 155.5578 164.692 170.4204 172.6646 164.6811 155.5114 155.3304 157.5724 150.1812 146.0128 143.7784 140.8413 144.2683 155.5575 169.9434 178.26 170.9528 170.1585 165.7879 156.2771 154.6509 155.2827 153.3266 159.1835 161.8542 153.9364 149.1725 149.2961 138.801 137.8317 134.7933 131.6859 129.4608 129.1853 121.6822 115.5285 112.6744 115.0069 122.0952 122.627 126.5506 121.4844 121.2886 118.6136 114.9312 111.7375 106.2047 102.738 99.57525 88.32056 78.76307 94.01775 122.4668 136.3456 133.0701 140.06 132.106 116.338 107.8353 109.0657 106.7181 
162.0399 169.471 171.0409 172.6762 183.3573 190.8398 180.3002 172.6347 177.3757 181.2528 180.8233 178.7888 177.8495 176.3197 173.6745 171.2186 172.0962 172.4846 172.424 171.4055 165.6698 151.5262 136.8584 134.8096 125.8325 113.8394 107.4899 106.0113 103.0675 90.89705 80.44467 80.47006 91.32832 109.2068 132.0461 145.6692 150.4813 155.9406 168.9379 168.0605 157.6222 158.1905 157.5236 145.2705 142.9662 135.7813 136.2277 136.9456 153.5217 175.5186 186.0023 176.3323 172.2878 174.1121 164.4561 154.5251 153.099 155.8755 162.873 159.2347 154.2406 148.9641 142.3159 134.147 134.437 139.0272 136.8611 128.1348 124.4121 119.9901 115.876 112.1413 113.331 116.937 114.4049 117.3766 118.9071 121.9192 120.0074 118.5121 112.288 104.0082 96.27579 92.12567 85.21907 80.06702 89.7739 112.4268 128.907 130.9638 136.1717 131.0391 123.2465 112.6054 112.5268 110.0481 
152.474 160.6969 166.2583 169.9588 183.0112 188.1967 173.9748 168.9185 173.0439 179.0811 176.9398 175.3414 175.0151 174.5853 172.6331 170.645 170.8292 168.9014 168.0549 169.2855 165.388 155.0155 137.6095 130.8391 123.2756 115.4902 110.8682 107.6176 100.9204 94.42636 83.07531 82.01505 100.3868 112.5862 125.9482 136.2372 149.6674 152.5501 161.6461 168.9196 161.1101 152.512 149.0533 141.0155 136.481 136.159 138.055 129.5626 132.0951 160.8058 178.8368 182.4494 174.9336 174.5359 171.6963 164.2333 163.6827 163.5977 165.1814 154.1171 149.9291 146.8403 135.9377 138.6513 137.0509 135.4015 130.6661 128.325 125.8468 123.7813 126.914 120.1889 114.2521 113.1917 111.3988 111.2851 117.6576 117.5613 117.06 114.0524 109.6365 103.9179 95.72268 89.23955 76.71852 68.73264 84.92086 109.397 128.5996 135.2589 135.8804 131.6737 124.4886 117.4046 110.336 100.7852 
150.088 154.1029 158.1496 166.2252 177.101 182.3539 175.1128 172.5747 177.0767 179.4936 178.4959 178.8021 177.3812 174.287 172.5289 167.8875 166.2011 163.1283 164.4678 163.0208 159.7176 155.874 141.0573 129.2096 125.6023 116.9528 112.4489 104.0583 99.28087 98.42023 91.56705 93.42364 99.98232 108.9117 120.8628 128.8607 144.04 152.2792 156.3439 160.0792 159.1629 151.1238 144.3033 136.7483 133.9614 131.6933 129.6393 128.246 134.1485 149.8656 171.0129 176.9711 176.0725 177.4713 172.5544 170.3738 166.4781 159.5106 157.8043 147.5162 143.1228 137.9371 140.5434 141.3255 141.7389 138.5289 133.3775 133.0934 133.7836 135.9603 136.7143 131.201 116.8449 106.8963 106.8481 108.4663 111.7333 112.4953 109.9947 104.4458 105.9429 102.7916 95.75792 87.95396 77.00144 66.98279 79.60411 105.5615 123.1221 135.8498 129.1887 122.2106 114.2936 110.0285 97.97255 88.89645 
150.212 150.9079 149.4814 160.4043 175.4868 181.848 177.2021 178.0403 175.3714 176.75 173.5907 168.8611 167.2441 168.5159 172.3673 171.7029 165.4262 159.8936 161.9314 163.151 159.0795 156.7206 145.631 135.6884 127.566 119.2936 113.3409 103.5507 99.64937 94.45332 91.54385 98.38747 109.1595 113.768 116.9069 120.1399 135.3176 149.8605 153.3211 155.0527 154.8823 147.2661 141.5262 132.3562 130.0497 128.8912 129.6811 129.1115 139.1465 152.9523 172.8008 175.028 174.9859 169.684 167.9614 164.5737 152.5365 153.0132 151.4921 139.7992 138.3979 134.35 137.0687 132.7011 134.686 141.4845 141.5175 138.5674 144.0901 142.45 138.6709 134.2202 120.7319 105.312 105.2724 102.1438 100.3898 107.6692 104.3174 99.7041 101.4852 99.989 96.83327 91.83966 85.41141 74.33568 84.77337 106.2422 120.9955 124.6394 119.3994 115.5032 109.0588 100.4001 91.49454 86.62997 
146.9305 149.5197 151.8286 162.724 172.6642 178.3488 174.7051 169.9109 164.1618 167.3661 165.5615 159.3728 159.696 163.1637 169.0948 170.0612 167.5808 160.8617 158.9655 157.7465 156.5608 150.7101 144.4032 136.2915 125.4024 118.254 107.3941 101.5826 98.46966 89.66222 89.21456 93.51424 103.8327 110.1064 113.4071 117.0902 126.0777 141.3489 151.9938 152.8526 150.8716 148.2705 138.2157 132.7402 136.5962 135.941 133.4281 129.6386 138.4371 153.4682 165.9752 170.4073 170.2884 168.3676 164.5284 155.9542 146.1242 147.1814 143.2253 139.6426 138.7768 140.1563 139.051 136.1181 134.7775 143.1835 149.349 146.3282 145.7137 140.302 137.0315 138.8384 131.205 116.7102 105.7355 93.37919 81.19882 91.74078 94.11423 95.33609 100.4336 103.042 100.5819 95.83556 92.24562 87.29166 93.23616 107.9887 115.3857 115.362 110.0024 105.6463 100.6806 91.99696 91.36319 92.08483 
148.994 148.6306 150.6527 155.0319 160.2139 167.9053 169.0381 164.4198 160.1206 164.5916 166.0735 164.45 163.6544 165.533 167.0298 164.654 165.5909 161.2704 155.283 145.2991 144.0461 142.4342 136.7039 130.4841 121.4471 113.8199 105.7631 100.4908 97.0697 91.65556 87.1283 89.20218 92.76549 94.9762 100.3266 110.1181 120.2155 128.5004 135.8202 136.1705 138.291 137.7366 131.0977 127.6164 133.3737 136.5812 135.7924 137.4188 134.6335 141.5537 148.1247 156.2665 162.0671 168.3873 156.9575 150.3118 147.178 145.0746 140.7682 143.625 142.2454 138.6661 137.4198 127.3681 126.9861 135.4283 142.6392 150.2231 151.7531 145.4504 140.3326 142.2236 141.7405 124.2994 115.0554 91.11916 70.26611 83.36706 89.90392 92.5761 99.17295 101.061 105.2025 103.3415 103.839 99.79224 99.69005 102.1235 110.1568 114.5735 113.9738 106.1229 100.1971 98.30394 97.0442 96.82359 
155.1543 152.3164 151.2759 154 154.1442 159.9465 162.6904 164.782 161.9458 162.3608 167.4806 170.8305 169.7896 167.3922 164.6805 162.1801 161.0631 159.8769 152.213 140.7394 139.8062 132.2723 126.2185 122.0134 116.8224 113.6074 111.4019 113.1191 112.4486 107.7434 99.32907 91.48129 85.83197 84.0927 87.59338 100.465 110.6117 119.4534 129.7481 131.422 132.1862 130.0759 123.4372 124.385 128.3895 128.03 134.0396 140.8702 130.4813 135.2246 138.1949 143.6393 151.8977 154.9417 144.2875 139.1098 145.2216 145.8604 143.1775 144.6467 140.14 135.5064 132.6477 127.4513 121.1012 132.9227 139.785 147.7053 149.9545 147.7007 145.919 147.0407 144.1234 132.9877 116.8313 98.87431 74.54416 83.53844 89.02582 91.5968 95.41835 95.7671 100.8185 104.133 109.1686 106.7839 105.2433 103.2671 104.7132 108.3568 111.901 110.5665 103.0955 95.69321 98.93149 99.99185 
156.1255 152.5193 152.4568 152.0243 149.3555 151.8669 156.0068 158.1022 156.9279 161.2628 167.4059 173.2661 174.4349 174.8987 169.0912 165.2699 161.0016 156.1441 150.5526 142.3369 135.6613 128.8663 127.2142 126.9714 122.9892 123.793 126.9807 125.9874 123.7231 123.0221 114.4731 100.5181 85.10326 76.08592 86.71513 98.78693 103.8228 111.0014 116.6747 119.1271 123.2706 126.2418 119.212 122.7445 128.1467 128.272 128.6006 131.3949 129.4713 125.2146 134.6761 147.3163 149.0609 149.933 148.2074 145.8761 147.6954 147.7011 140.9906 141.1597 138.9319 133.9707 132.2625 127.6342 128.4823 134.1628 137.1403 137.392 143.8586 149.4278 151.9906 149.2928 142.8582 130.1562 115.5107 108.1161 94.47688 94.78065 96.70695 90.31924 89.74237 89.67844 92.08404 105.2505 111.837 111.1204 107.5953 102.0166 99.74949 100.2905 108.9846 112.1121 103.3053 97.02855 101.2553 100.5945 
153.0873 151.5005 152.4341 150.1807 142.6272 148.6454 152.6126 156.0027 159.5695 163.5201 163.8897 167.8954 174.2855 176.7837 175.1558 172.2637 168.0849 160.0113 155.2919 144.6551 132.1711 127.077 128.3685 129.0582 130.3452 133.2235 134.5833 133.2376 130.6466 129.3427 129.0688 113.3228 93.24248 77.72132 77.64648 86.87267 106.2928 117.7777 113.924 109.7363 116.4509 123.8936 120.9869 121.5656 124.1497 127.3294 127.7518 131.5621 129.7053 125.7189 132.2767 147.8343 153.552 154.9675 155 154.0285 146.1271 143.1305 135.2849 133.7027 134.7729 127.5484 127.3176 128.2047 137.5114 136.934 135.8999 135.4173 140.9375 145.7407 138.9018 140.2043 134.844 127.4952 117.577 113.1708 101.2107 93.4326 101.0677 99.08555 91.41516 86.71332 88.38735 99.55781 109.6414 108.3209 104.1468 94.61967 93.13554 97.96781 100.3768 103.3428 100.3783 102.5582 101.1057 97.82121 
146.5674 148.8329 152.66 149.6112 144.3419 145.7134 150.9589 156.3398 161.2618 160.5915 157.3342 161.8726 171.8432 177.9465 177.4952 175.6422 177.7483 176.4829 169.6378 159.2217 144.086 135.2358 131.5836 130.9075 135.9806 140.5687 137.3137 129.8138 131.9657 132.3491 127.0546 126.396 109.7147 80.65791 76.28426 82.15139 104.3246 121.5739 109.7443 107.5396 111.182 118.3408 120.6371 117.4337 119.9219 123.5551 127.6584 125.502 124.6572 120.6201 125.1039 137.1399 151.3171 155.086 158.5173 150.5372 144.7379 144.332 139.7614 136.8512 134.8314 125.6572 122.2587 126.8014 133.4162 132.9334 133.7138 135.2822 138.8704 137.5101 133.0365 130.9396 133 128.9279 122.8649 115.112 102.7744 91.34541 101.2497 100.9639 95.15691 88.17578 88.58373 89.75589 95.90555 94.88776 94.98872 93.0939 97.08092 101.9055 101.4426 98.89444 98.05528 98.86963 97.75348 96.48931 
140.7412 144.7755 152.9859 154.4108 150.5973 144.8184 146.9494 156.3833 157.1889 156.4431 157.834 163.8297 169.4503 177.2519 177.7189 176.4749 180.3733 181.2682 176.9814 173.2814 157.2859 146.8568 142.4424 144.3247 150.157 150.1779 141.7646 133.5387 131.7404 133.6332 129.9817 137.4838 126.6483 99.85689 74.72307 76.03843 93.20042 116.8306 114.0313 109.6122 108.4782 108.5444 108.9459 111.7091 112.3738 117.8943 125.3605 125.3518 125.8664 121.1871 122.9486 130.7622 141.4043 147.4381 154.5225 144.1618 139.1298 137.4568 130.1836 130.0534 133.9352 130.5134 124.7964 126.035 126.5749 123.404 126.5403 131.8528 136.8441 134.6953 128.9078 130.2884 132.9278 130.261 124.5576 116.4966 102.6097 95.82004 103.1575 101.0947 97.58778 88.57152 83.97725 84.48741 91.61629 99.47176 101.7573 101.3432 102.029 102.8952 106.3403 96.92667 96.35823 95.16862 96.11499 98.23389 
143.8775 142.0458 145.7279 146.9551 149.2488 145.0246 146.039 150.337 154.6024 155.5984 160.8264 160.336 169.6867 173.8804 178.4939 186.6142 185.4811 180.6871 181.6953 172.0361 157.0842 152.2095 151.86 166.636 173.3982 169.5007 162.7102 147.7946 136.7852 134.371 133.1279 135.7702 130.2932 113.81 89.38657 71.73621 83.88661 116.4204 120.032 113.4819 112.549 107.5372 103.0777 102.2191 103.7902 107.7181 114.5207 120.7916 123.874 123.7475 121.1495 126.7426 134.6513 136.1169 135.7621 131.882 133.2325 132.4636 127.8442 128.4218 128.4686 128.8374 125.8118 126.8298 124.7949 124 123.2497 124.643 131.4753 129.6196 125.7921 128.283 131.6871 126.6786 115.7164 109.7394 103.2453 97.12333 96.66908 97.18909 95.96669 84.48588 83 86.84731 97.60283 103.7542 104.5298 103.642 102.823 105.1647 104.1427 96.74511 94.83025 96.29167 95.82146 97.41017 
149.6241 142.0091 140.2916 143.1393 146.0385 149.3201 145.5481 151.1012 153.6751 152.1808 160.0544 169.0502 178.511 177.9427 181.347 183.71 184.675 185.792 179.0161 173.8943 163.9368 166.9028 174.415 174.9255 174.4505 170.27 164.6933 157.0997 153.2036 150.8759 148.8033 143.4991 134.39 119.6907 99.66475 71.26202 63.22766 93.11904 113.2195 110.1423 111.2466 105.1765 101.5368 103.0265 103.7417 105.5002 106.0726 110.3643 114.4042 118.8351 119.8775 120.0451 126.1008 126.5079 127.0466 131.118 134.4731 136.3869 134.3314 130.9778 128.704 127.0612 129.9582 125.8317 118.0867 118.3822 121.6829 118.9688 118.8999 118.273 121.1886 125.2925 124.7908 117.7169 110.5538 105.974 98.84814 95.45107 93.4237 92.84875 91.58046 82.77345 81.64201 84.86629 93.85262 96.20912 97.72853 99.07599 101.0853 103.418 102.3685 98.3561 99.6095 97.61525 94.35475 93.16357 
157.5265 148.1178 142.9259 143.4492 146.5068 149.3885 145.3158 150.2844 155.1591 153.2202 161.0565 173.1241 178.5414 181.2723 187.2994 190.2661 191.864 191.5994 186.3167 185.1994 187.038 188.0421 187.6497 179.7733 172.9619 166.2715 154.9175 156.6871 157.33 152.1044 152.3452 151.5951 138.8336 124.8172 110.5824 74.80638 57.11047 81.07861 98.82922 106.3834 106.0617 103.257 101.4175 105.1034 105.4202 107.2991 107.3904 108.6134 110.9883 115.7444 120.6314 120.6548 124.1634 126.3822 126.9002 131.6495 134.9194 135.9342 136.0517 134.2671 128.5336 127.4258 132.4141 125.733 116.1886 113.2355 116.7291 116.0404 115.4523 112.5842 112.8052 112.6443 110.925 105.9397 102.569 102.4265 96.00066 94.04381 92.7555 89.97923 88.59275 86.00027 83.4743 82.52741 85.67311 89.67004 94.05825 98.19414 101.5842 102.1175 103.8842 99.08247 97.07444 96.16541 95.19998 91.49409 
164.6496 162.9243 155.9245 149.4675 152.0801 149.0481 143.1381 148.2502 151.5402 157.2137 166.0283 174.7388 178.4818 184.4795 191.5137 192.1717 186.1914 189.1586 193.3762 187.3313 186.7054 182.479 189.5692 182.9909 172.4085 160.6605 143.4019 141.3029 147.9926 145.0771 146.4312 140.7618 133.3862 127.114 116.489 84.85205 72.77316 82.1542 96.40334 105.5442 103.8334 101.616 104.6067 105.2686 101.8589 103.871 106.9924 110.8661 113.5319 115.0131 118.4367 121.2421 123.9083 127.1787 130.6067 132.0939 132.151 134.0363 135.2661 134.0937 131.9043 129.4509 127.8979 125.0739 120.3625 117.9662 116.723 114.4893 111.2671 108.7675 107.3223 105.7324 102.3753 98.6624 95.06502 95.78856 95.40968 94.51096 94.35789 91.53139 88.29374 87.92659 87.82548 87.73708 87.95814 90.59914 92.90007 94.874 98.7355 103.1622 105.2072 100.7638 97.51488 97.52063 98.49277 97.13808 
161.8582 162.8683 159.9218 154.3745 153.2809 150.4361 146.5346 150.8532 157.5852 162.2423 167.9601 173.9839 179.0371 184.8591 191.8085 182.8662 171.0215 171.9449 175.1866 172.4689 170.7476 171.3289 174.2742 167.3524 155.9072 147.5059 141.1417 139.4271 138.2489 134.3418 131.9458 126.207 121.5264 116.9391 101.0608 78.65707 75.84025 84.40084 97.41158 108.3211 102.2765 101.2487 104.7221 104.0376 104.3177 105.8799 107.4906 106.4925 114.479 118.0702 120.4245 122.5492 124.0918 127.042 128.177 131.9294 132.8524 134.0623 135.1198 135.3225 134.9855 128.1493 126.5494 123.3367 120.6344 119.3997 118.9839 117.1247 112.5584 106.9569 105.0941 101.901 99.87895 94.847 93.33986 96.22161 95.64617 95.57791 94.9054 92.21152 89.84747 88.81294 86.87778 87.53535 89.18559 88.57742 89.48019 91.12215 95.47125 99.31164 100.2911 100.5767 101.284 101.4711 102.0179 102.3151 
160.8213 158.8736 158.6257 158.3508 159.5415 157.6312 155.2086 152.866 158.1245 161.0923 164.6234 165.6292 172.7401 172.9753 174.8604 168.8756 161.0065 160.6618 158.6519 155.8078 154.289 153.1747 153.4095 151.1325 148.0153 143.471 140.417 134.7886 131.0323 125.276 121.4079 115.0377 109.0708 98.31535 84.13842 73.04063 77.29922 81.46955 88.73122 93.75945 96.27776 101.3179 104.6766 103.874 106.5775 105.9946 103.3588 104.1645 111.024 116.8222 118.9792 120.9271 123.7972 123.0184 120.8306 125.2413 130.5223 133.6221 134.2759 139.3786 141.1145 135.1356 126.5171 122.9694 120.1956 122.0094 123.318 123.283 116.8459 113.9576 112.0079 102.866 97.43928 93.59174 92.11662 97.89428 95.30441 96.8797 96.06284 97.64259 96.98435 93.10345 87.71925 89.54926 94.79591 94.61408 91.94673 91.29007 94.73197 97.99428 101.0622 106.9714 107.5101 106.2782 109.535 107.6107 
150.7478 147.1706 147.5049 151.0856 160.9473 163.6797 163.2775 154.0277 151.6938 150.4133 151.6091 159.726 164.0789 163.87 159.9895 159.8242 156.5565 156.3934 154.648 152.0682 148.274 149.2236 146.8929 144.9675 144.5683 139.9706 135.9142 134.8064 134.7385 127.114 123.0191 114.685 100.8201 90.73303 80.06157 72.9657 74.80652 77.64333 79.54301 88.03648 100.0352 107.2367 107.5079 102.9951 104.9373 107.028 102.9632 108.1994 110.9792 111.5901 113.6082 118.2284 119.9923 117.965 117.2229 117.6507 123.114 132.2682 139.4955 144.1336 141.1798 133.5482 131.7766 127.0319 124.0141 122.7104 125.3964 128.164 123.0166 122.0539 116.4469 111.2434 105.6297 99.27012 100.0456 100.4046 97.56972 96.37163 93.41647 90.22723 94.65259 100.8902 98.23959 98.30269 99.37446 99.9454 100.0796 94.07159 98.59998 101.054 103.5636 106.6282 107.497 108.4494 112.4364 112.5482 
145.5787 138.3218 139.9182 149.7713 157.1885 162.3337 163.1671 154.0879 143.6983 139.4846 145.3407 154.1853 161.0456 159.9326 158 155.8348 153.7603 151.1092 149.8109 150.1809 150.8773 146.5115 144.966 143.108 142.7852 139.2482 134.4136 133.6842 134.5415 126.9191 122.1314 110.2477 99.37612 88.0704 79.76554 73.88508 69.60766 70.45894 76.53003 89.24692 98.03291 105.4413 103.6503 94.8244 97.49398 101.3062 105.2017 111.525 110.025 107.0418 112.0167 117.7072 120.2618 116.8178 115.5301 116.3393 119.3004 129.8451 138.4478 140.0077 133.5631 130.3456 132.7846 132.259 127.8176 123.5166 122.8308 126.9682 126.9814 123.2144 115.729 112.4 114.2319 105.799 103.8802 102.6627 98.43771 91.91544 84.09756 88.0354 97.89192 108.7984 109.385 112.1385 107.2129 107.6882 108.7235 102.9915 109.0648 109.895 108.4015 105.534 103.0517 107.145 114.7995 117.6705 
135.6111 133.1403 138.3574 143.4439 152.5865 158.3086 160.5887 157.7614 146.4651 133.9417 140.8421 149.7709 156.1783 157.7237 157.1738 157.9187 154.3535 149.95 149 147.9382 148.837 143.068 141.416 142.2839 142.5271 138.0331 133.4373 131.3862 130.5061 124.8461 117.6749 108.1831 96.87024 86.41944 85.2855 78.60197 67.42905 65.15671 74.11108 92.30968 102.7553 104.5107 99.66311 93.4185 95.54514 98.85669 101.082 108.1747 110.7288 110.7439 113.762 115.1689 114.9277 113.7465 113.0225 114.5992 119.6476 128.1488 134.5445 135.7448 130.4601 134.3362 132.9286 133.7978 129.5459 125.0985 122.6821 125.3277 123.0378 121.1521 120.2937 118.9369 119.2381 113.4393 107.618 97.98798 88.5688 84.40108 84.91428 94.28171 107.1364 119.0592 120.8298 117.3913 113.7541 116.433 113.584 107.8683 111.8652 115.7459 110.9201 103.5732 103.8132 110.0675 115.5199 119.3542 
132.653 138.2915 139.5714 139.5486 145.9234 154.1941 161.5793 163.287 152.9164 138.3885 140.8378 145.0384 151.7713 155.2262 156.249 159.1725 157.3064 150.2728 146.8892 146.9869 148.3693 145.8335 143.8744 142.0479 139.9818 137.1648 131.3874 129.4664 126.4221 119.721 113.0926 99.8271 91.91331 88.11688 77.31438 77.39733 68.5224 65.81579 78.8119 91.73413 104.0667 104.7556 99.03175 97.53522 99.3196 98.32507 97.65556 98.37167 104.4512 105.8761 108.9656 110.6839 111.2589 112.1659 111.4613 111.7331 118.0041 131.3297 139.5946 132.9979 130.5663 131.8746 133.3268 130.99 130.2556 131.9758 128.5313 123.4416 119.5244 118.5061 126.2998 127.8298 120.9868 110.8607 106.0493 96.53242 86.99098 87.55045 94.20238 107.7305 117.6005 124.4721 124 123.9037 120.0663 118.1307 116.0759 111.908 107.293 112.8099 112.3128 108.4454 110.2975 114.5148 115.3098 116.3538 
133.439 137.8177 138.9206 136 142.1802 151.965 157.7663 159.6533 155.9266 143.7645 137.4924 140.2325 141.7712 145.1363 148.254 153.8481 154.4882 147.5173 145.015 143.3487 141.992 140.1317 137.8842 136.0935 135.0571 133.5243 127.7655 124.2852 119.4497 115.0821 105.1148 100.9367 91.88725 87.68355 78.82474 73.20238 68.52176 72.2017 81.60728 97.18022 100.0725 99.81622 99.52227 100.6307 104.776 100.5974 92.23517 96.82168 106.0049 104.6447 109.7444 114.9939 112.8433 110.3309 109.4922 110.5627 118.1188 134.5334 139.4352 130.5647 127.3348 124.7917 124.8479 124.6331 128.9222 136.8795 128.4294 122.6503 123.8781 125.6103 130.0744 129.1506 123.4808 115.2258 103.8966 95.32637 87.7601 90.45012 105.6778 124.5003 128.3517 126.0441 123.5771 125.6756 126.0242 124.8948 125.1345 119.8435 110.5827 117.4564 117.8972 114.8604 116.037 115.5529 115.9568 117.9759 
131.842 138.2422 138.3222 138.0078 142.7564 147.7431 152.0341 154.0059 153.4636 145.9439 130.9236 135.8908 134.5478 136.4395 137.4065 147.0938 151.3286 144.8284 140.1572 137.2613 137.0554 135.8831 133.9156 132.1536 130.7047 129.1551 126.5206 123.3957 119.8216 113.9894 105.9114 98.52014 95.19737 84.61191 79.99049 78.43974 72.04488 73.29166 81.93211 95.57241 98.58047 101.632 103.0725 102.1062 102.1663 97.03964 90.3064 96.95178 109.9112 107.0866 112.3363 111.518 106.5984 106.0909 108.1509 113.0841 117.9832 123.3345 124.3372 127.49 124.8923 121.6389 122.5378 123.1584 124.8124 130.3134 124.8019 125.7613 123.5597 121.4314 124.9669 127.0926 128.2189 121.7261 114.1016 93.57545 82.12339 88.40754 107.4918 126.6882 129.6463 127.7273 125.3145 128.1899 130.1212 126.5038 128.0288 126.1497 118.0418 119.6235 123.6552 124.489 125.7 119.7762 118.3326 121.2634 
125.4925 135.9918 134.4922 133.4368 139.434 144.6678 149.2211 149.6913 154 149.3598 137.5494 131.9366 132.1917 130.2652 130.0851 138.8504 142.3362 137.721 133.7415 134.5897 133.1825 131.7864 131.341 129.847 126.8514 123.4508 122.5483 120.2897 116.6914 114.6644 107.2726 98.57007 93.69833 86.18666 82.01448 79.52219 72.61523 69.50348 73.88118 83.69334 94.45126 103.4942 98.56444 95.53004 95.82119 91.57381 85.35369 91.11175 98.70686 98.5069 104.0901 107.9366 107.2428 105.5274 107.4726 115.0528 118.0331 118.6389 120.0183 129.0468 130.1884 124.3036 124.3856 124.4127 126.4026 127.8533 123.9814 124.7417 122.705 118.526 121.437 124.463 123.5482 120.8355 115.8221 87.12704 75.08546 80.51702 97.825 120.2093 130.9356 130.2589 128.4261 131.9496 131.3742 132.0561 131.2682 131.1125 125.3185 118.175 122.599 122.6865 128.3795 125.2646 123.0444 124.443 
120.7304 131.2296 129.209 126.3585 137.8434 147.9342 151.772 153.1017 153.2928 153.0385 144.0741 135.8697 128.7666 129.9454 135.6374 140.7773 137.6811 135.2883 134.2037 138.0809 133.8032 130.3083 127.7224 127.373 123.2801 120.8185 119.6836 119.8967 113.8503 112.3694 109.2309 103.1942 99.94753 96.1305 93.37012 81.75739 70.89705 65.14173 68.10555 77.56319 88.77481 99.13776 97.12788 96.11638 95.16385 88.95213 85.09709 89.15811 94.11247 91.98901 92.67422 99.43742 105.4693 108.7908 110.953 114.6276 117.7639 123.4938 122.6184 126.0448 128.0286 129.6881 126.7286 122.3316 126.4233 123.8673 115.5003 114.6448 118.9339 120.5405 122.8993 120.7828 116.1822 113.6584 111.4376 88.45843 67.12295 69.06342 83.63563 108.1275 121.5122 128.1624 133.1452 138.9765 138.0715 134.7464 136.6758 139.0436 132.3618 120.9229 120.987 119.2061 119.9341 126.438 125.7458 125.2765 
120.8947 123.8371 126.5242 128.8871 137.6177 144.9959 150.6185 161.8338 164.577 160.3775 154.2827 141.2018 129.3152 129.0327 135.1775 138.7121 138.8479 135.1123 127.1349 129.0173 130.5065 127.8167 125.1127 123.186 122.6935 120.4627 119.6971 120.1171 117.015 113.5079 114.3821 108.1841 105.8447 104.2642 100.967 92.531 76.54163 68.18223 63.8027 68.18372 79.08739 89.20227 93.68677 94.74083 91.22681 85.03366 84.62829 92.94088 94.91708 93.73016 93.14253 94.16586 99.83714 108.7621 111 112.1773 120.1081 125.061 123.6572 128.1219 130.8594 128.4317 126.4161 122.2109 123.2186 117.5266 107.5661 107.9186 113.8542 122.7896 125.3708 120.0263 116.2181 115.9111 113.25 94.07457 75.63195 69.67445 76.89807 100.341 120.0929 131.0533 136.2298 140.0361 142.3221 140.9664 140.3804 140.0791 135.4559 121.7175 125.2423 130.9222 128.9747 129.1525 129.1246 131.7733 
129.5232 127.3385 132.1971 135.8109 136.6768 144.0427 152.86 168.9333 172.4334 169.2101 162.5172 151.5452 138.174 127.0782 128.1969 127.4619 135.3171 131.194 123.8817 118.0235 124.9603 122.6485 120.1852 121.0518 122.104 118.5546 119.7176 122.4652 121.6407 117.2094 116.5965 111.3098 108.791 111.7792 111.7114 104.9418 84.9659 72.40701 63.74876 63.14781 72.27441 79.33549 82.84615 84.04408 86.4472 90.69429 88.82564 89.72285 92.18382 94.48606 97.32133 98.39796 97.26731 102.9095 105.4501 105.3083 118.3713 123.6572 128.1228 133.8672 133.0668 123.9626 122.4748 117.4951 119.7469 119.3883 113.7795 114.4111 117.7238 123.3081 120.6658 114.9139 115.487 115.5222 111.123 99.60692 82.24342 69.83559 75.83606 102.8386 127.0914 136.6316 137.8728 137.6859 142.6374 144.1318 143.1559 142.2769 141.0834 133.6573 137.507 140.1306 138.1563 135.5593 137.2933 141.2774 
128.1409 132.6453 142.8015 145.2036 146.2751 153.2939 162.2771 171.2139 173.186 171.3811 168.573 163.6049 153.6013 132.722 123.0972 122.7717 132.4847 129.2283 127.3121 121.4506 121.829 118.677 115.0947 118.7472 118.9189 120.6394 125.3874 123.2611 125.4972 121.799 115.0347 110.584 116.7145 119.7949 117.3152 109.3396 97.08804 83.1722 64.56485 59.40044 67.00468 74.3323 76.74713 79.56325 90.26034 94.68874 91.92838 89.91085 93.96898 97.7888 98.99083 104.2548 100.1346 98.56531 102.6459 104.5443 112.8833 123.7566 124.6788 126.5975 126.1409 123.7312 113.7299 113.8363 118.2141 120.1442 118.6995 117.1618 119.6631 121.0415 113.4348 108.4684 112.5365 111.0062 102.2562 92.39355 79.98184 76.07712 86.80833 112.1021 130.2039 137.0765 141.1482 142.9904 144.0322 144.5616 144.6398 143.7826 141.4142 137.8552 140.6486 139.6081 146.3953 147.2298 144.7403 145.2915 
125.1275 131.2501 144.609 152.0735 159.9782 171.4598 170.912 172.058 178.9833 177.351 173.4318 167.1045 159.6149 140.5343 116.9228 120.3458 126.9563 128.8748 129.3766 128.7623 123.1512 119.8144 118.1143 117.0518 122.2477 117.3384 123.8228 128.5475 131.5025 129.0165 124.8778 125.1741 118.1113 116.8319 115.146 109.9206 98.18324 81.08153 65.93039 57.47287 57.63765 67.24419 76.41698 81.22192 87.15715 96.07817 93.84283 95.40752 97.49935 95.58676 94.1088 99.39785 103.2614 104.788 106.0782 108.8401 111.1855 114.1761 113.1718 121.6873 128.7771 126.2896 112.2838 114.4122 119.6299 120.7789 117.4435 111.6394 110.3808 115.767 116.3122 114.4499 106.7311 98.51466 87.63575 79.69919 79.00427 83.75986 99.83122 115.42 131.3123 139.7459 140.7219 142.6148 139.767 139.856 142.2224 140.623 141.3922 141.7154 140.6096 138.7007 150.1403 155.3033 148.6029 146.3754 
122.591 130.0628 140.0559 157.8743 172.8296 184.1649 183.3232 177.5772 178.4585 176.3228 168.7253 159.7224 151.8173 139.652 123.3759 117.748 122.5851 127.7988 128.1016 132.3403 128.7399 120.1124 121.1565 121.5356 124.8571 123.8714 124.7764 133.4574 137.6438 133.8786 131.1543 128.8566 116.3579 108.6753 108.8296 106.9535 99.58432 80.4233 62.45269 52.87866 54.07333 65.72701 72.59109 73.98099 85.3512 96.69897 97.79406 102.9037 100.1191 94.98206 96.2475 101.7816 110.5471 113.9435 113.0677 112.9519 110.7285 108.2719 107.7497 116.4578 121.6798 123.2282 123.6917 125.252 124.9141 126.0643 117.4619 102.1877 99.03944 113.9366 124.1451 120.6808 109.0359 97.29721 82.7824 75.2796 79.24554 86.74648 104.0981 115.5527 127.9259 131.9512 131.0381 135.5759 136.6077 138.0865 138.2594 140.596 142.6909 144.9243 145.9158 143.722 145.8168 156.3085 154.3894 151.76 
116.8491 126.9483 138.5283 151.3683 171.4003 181.5111 178.1757 178.9064 172.9379 165.0677 155.3164 147.9333 142.2012 136.7297 123.6806 119.2089 120.2751 122.9137 125.115 128.9652 125.1928 124.4121 130.1451 134.8609 131.2707 127.3853 135.236 136.465 140.8434 142.1058 136.3331 130.2312 118.8578 110.4228 108.9518 105.3788 101.7548 88.85811 65.24712 58.61453 55.29268 62.79544 70.95634 68.86307 79.54553 92.5846 100.2336 103.7499 102.2257 102.9607 104.5874 104.548 111.9648 119.8922 120.1994 117.9194 110.7449 111.8297 110.5923 118.1866 122.398 128.0406 132.9917 122.8395 115.53 114.8413 109.5682 98.96404 101.7088 113.373 123.5272 122.6518 113.0686 103.8569 87.8171 77.0975 77.38254 91.76003 104.3178 107.8177 114.6945 122.3766 123.293 128.2808 136.657 140.9672 139.144 135.3268 134.5716 143.423 151.7899 148.9385 146.9439 153.4983 156.0114 155.5511 
114.4144 124.9608 136.5921 147.779 164.8202 172.006 171.0229 176.2203 171.7831 162.4546 155.5303 147.9852 144.0379 138.3134 126.837 119.7417 116.6424 121.2912 123.555 127.7955 127.026 132.6772 139.2088 141.4152 140.658 135.2166 138.1369 141.072 145.608 149.7043 145.8407 126.9261 122.187 116.0925 118.1029 107.9215 97.58463 89.88193 76.87175 67.19218 60.69769 57.36124 57.87666 63.11277 72.84298 87.90604 97.27768 97.01417 99.49159 106.6568 110.7746 110.9312 116.3685 120.7585 122.4263 121.2636 118.224 122.4206 124.0611 125.0211 130.0142 132.9864 127.4781 110.2205 107.5796 111.7475 111.1512 111.065 113.5748 114.9428 122.9936 128.2746 121.586 107.028 82.02843 66.38471 66.67955 77.79379 92.3549 99.6498 106.9615 114.5625 119.8336 124.4585 132.9934 136.9297 134.4512 130.125 131.2749 138.3192 144.5825 148.7429 150.7 152.1591 156.095 159.8031 
111.2545 124.1161 135.5641 148.1464 162.9901 168.1184 167.192 168.7773 163.4749 152.8577 150.7171 146.928 143.454 136.3613 132.4997 120.7348 111.7812 121.3566 123.7561 125.7363 129.805 136.0439 140.2146 140.709 141.2405 139.2075 136.2352 139.6005 152.3009 157.7614 147.5163 129.8333 124.2449 123.6858 122.0661 109.5436 95.44383 89.83072 86.61139 78.35303 71.72639 63.60638 57.01649 57.55178 63.88538 82.42493 94.72093 94.25882 99.74953 110.0536 110.8623 113.2104 121.5357 124.8167 124.1002 121.1332 120.5386 125.9741 126.1662 125.8349 129.0435 130.2317 127.5746 116.0681 113.3013 117.6893 119.0914 123.4078 126.1124 130.4588 134.4167 136.5872 128.0993 107.38 82.43358 60.54304 61.12946 66.84849 83.03805 91.50818 97.69447 103.455 110.4279 117.9417 124.3663 123.8136 127.903 132.3791 136.8747 142.7309 145.3938 147.4984 154.5316 158.1928 157.6469 158.5495 
112.2829 121.7949 134.276 145.6918 158.5577 164.0316 162.3416 161.9779 157.5992 149.4393 144.727 145.2213 141.984 137.6483 133.3947 120.6914 104.3145 122.5564 123.1315 124.9737 129.8477 131.9539 132.1608 140.5687 141.1247 143.1216 141.8008 139.3022 142.498 144.4927 141.1314 129.7579 124.3429 126.5802 124.1171 109.1749 100.1161 93.88239 94.16615 88.07997 79.78755 67.48193 60.93388 56.95714 58.91763 72.42079 89.94093 99.49468 101.3022 105.3461 106.8736 112.8259 126.9 137.1411 134.0294 125.4381 119.9628 119.5737 120.9598 122.2451 125.2237 129.595 133.6626 121.0506 121.638 127.0449 122.8967 120.9511 130.2523 141.0164 137.183 132.7346 127.2507 107.3931 74.05576 55.58201 56.05825 62.69627 74.26385 78.71806 83.29957 92.30506 101.4186 108.0366 117.3919 123.1861 132.6421 140.4106 146.228 149.9279 148.8291 149.9833 158.0712 159.8277 160.5558 163.0831 
121.5979 128.8689 135.1085 143.3891 153.4389 161.5452 161.8182 161.507 160.8398 151.5305 144.4026 144 141.9691 140.4011 132.8688 123.657 108.7437 118.3498 124.3851 122.8537 127 125.2536 127.1439 140.9367 146.9128 150.2889 150.6556 147.3888 142.153 140.0336 138.6273 132.7715 127.2709 128.432 123.0881 114.9637 111.7102 107.7446 103.8406 93.73367 83.82016 67.39688 61.93822 61.38379 60.72038 73.36703 86.09695 96.72497 99.30961 101.2589 105.6674 111.9402 127.9698 141.539 140.1188 134.9092 129.3083 124.2858 122.1549 122.0166 126.8518 129.9388 130.3539 123.4688 126.3326 131.405 125.4344 124.5748 133.6324 143.613 141.1841 133.1835 124.3975 106.0972 75.83277 56.45658 55.62188 61.27934 67.11153 68.95587 72.73716 83.09192 95.16497 106.0402 116.2057 128.0618 139.8988 150.2823 150.0336 151.1563 154.2006 155.3393 158.4064 159.451 161.8191 164.8842 
129.8828 134.8715 133.4148 136.2377 147.0945 160.8828 163.6065 160.9528 165.0061 158.5049 146.3995 141.9104 135.6 132.6368 129.7817 123.028 116.7225 119.961 123.7425 124.0995 125.2955 128.7185 136.4311 142.6185 151.4702 154.924 156.2915 153.5602 148.6015 145.6429 143.514 138.5781 132.3623 135.806 136.2431 132.2476 128.6716 119.665 104.9712 93.53214 87.7403 66.80444 60.79807 59.42305 58.07757 76.16099 88.70576 97.02702 100.8253 101.6488 102.4809 110.0189 123.5756 136.8744 143.6859 141.9167 140.5548 135.1175 131.1954 130.2979 129.4618 128.574 127.4165 123.7002 125.9153 131.2004 131.9438 135.5044 141.2502 142.4275 141.7442 133.7527 122.6261 106.652 85.10841 69.42063 63.11115 62.53284 66.06123 66.39513 65.73039 72.70483 90.39661 104.5899 113.2695 123.0614 133.1788 142.4966 147.8156 152.0982 156.5599 158.7178 163.049 163.7771 164.1922 165.1577 
124.6437 133.2128 132.0541 133.5204 147.9164 162.2373 159.9957 159.2799 157.8999 149.4775 143.9815 141.7158 136.1203 134.093 132 130.1595 115.8653 122.1748 123.1864 125.7857 127.2376 132.4006 140.6089 141.6572 146.1046 154.3462 154.0607 151.3669 151.8174 151.1229 146.4706 146.5475 139.9515 146.1787 147.4618 136.847 130.8484 115.378 96.46284 88.7094 85.5697 68.55103 64.93184 56.12638 58.13959 76.0911 90.31381 97.03708 100.687 98.01773 101.588 103.3442 107.8559 123.8524 137.2789 138.8982 139.363 140.7559 137.3508 139.7124 140.3148 136.9787 132.6376 127.2376 127.5386 133.6808 136.7545 137.4428 139.4064 140.2358 137.3644 128.4621 126.6426 118.0186 92.48032 76.7886 73.2985 68.42435 65.90115 56.82154 55.32929 61.31011 76.45705 90.08369 103.8768 117.2703 125.3519 131.7166 140.5684 151.3911 156.3235 161.1366 164.3429 166.5424 165.8747 166.2031 
121.1598 123.755 126.6804 133.9023 147.1715 163.9348 163.304 160.9077 150.3099 139.1888 143.3847 142.4645 139.4431 133.7 130.666 125.446 112.5013 121.033 130.2294 130.0884 130.3869 134.2802 144.9489 146.295 146.9026 150.1078 152.6175 152.7929 154.3082 152.5811 145.8056 145.1264 146.7035 155.7484 149.6301 138.2348 132.7795 107.3287 89.51458 82.91442 80.45854 74.71454 67.51538 55.14681 52.90161 66.5313 80.9518 89.40016 93.53891 96.91469 98.38582 101.7424 95.95816 105.5199 127.5776 133.3959 133.8961 140.0952 145.7369 145.7075 139.2804 134.8672 127.2894 119.3604 125.0211 130.5273 133.0075 132.2948 131.6526 131.7898 126.9242 124.3034 129.1871 126.0294 104.6283 85.7742 78.79661 75.09679 66.11265 49.66979 45.03626 52.84865 66.88729 80.86096 95.36273 107.1077 117.3264 127.5157 134.1044 143.4559 148.2413 151.1955 159.102 164.4545 164.0781 163.6431 
118.6421 125.6008 128.856 130.969 141.4735 154.4856 159.1003 156.0607 143.362 141.0417 139.601 140.5056 135.8364 129.2616 127.3987 125.1751 111.7236 116.7946 123.8069 134.95 134.6062 134.3946 141.3598 144.5558 144.7056 146.3486 154.2417 160.025 161.3842 156.5063 149.8804 147.3679 149.7589 154.0284 144.5482 132.3111 125.7743 103.8588 84.57668 80.08759 77.5935 78.92512 73.2705 60.86008 50.64393 55.58057 70.3839 79.60453 83.35523 90.34107 98.31473 97.92126 90.02345 95.37985 115.5955 128.3544 132.4584 138.5517 149.3855 155.8524 148.3086 140.6599 131.4222 125.9123 132.9559 135.9016 133.6578 129.5262 125.3234 125.3478 124.7065 128.4861 126.3513 123.3934 105.863 93.79378 83.83951 77.10114 65.18268 46.66772 39.12109 42.44684 58.06487 76.24519 88.92807 102.2543 111.0095 118.8181 126.5747 131.5569 135.6094 142.0052 149.507 155.7019 158.0406 158.4843 
114.864 124.7811 130.1337 126.7421 136.4797 147.0347 155.2834 151.1046 142.0025 139.4241 138.8156 138.9811 137.746 130.9165 129.4201 129.5908 117.9435 115.1778 125.3727 131.2324 133.8287 131.4503 134.6945 139.8226 140.7889 144.8216 154.8611 160.3188 162.7304 159.4825 152.8697 153.8562 155.4798 154.3014 146.0561 134.9589 119.978 100.8193 91.37495 90.25617 86.10548 81.76591 80.46877 61.51577 50.23309 51.54066 61.90668 74.77431 80.26786 84.13949 91.38032 92.77459 87.43082 85.11918 112.096 129.1774 133.6936 137.4451 149.3369 157.4612 153.6554 145.5228 138.9595 131.208 134.7116 137.7175 137.7567 132.5435 127.4386 122.0424 115.194 119.563 122.305 118.8622 108.1498 101.7045 90.92428 82.3777 60.0531 35.41333 37.58715 40.7755 56.83691 71.1714 84.74801 94.19497 101.5114 110.5304 120.6423 122.1123 127.9503 138.0038 145.7788 151.1073 156.4936 158.2699 
111.4801 116.7996 129.6656 132.7502 132.6084 139.8832 147.7709 150.2962 143.3038 137.4313 136.9318 137.5297 136.1626 132.7897 131.8567 126.9131 119.5642 119.0978 124.4717 129.5119 131.7222 130.7196 135.9232 139.2357 143.7203 147.9771 155.8622 160.9149 164.3218 161.51 155.0993 158.2444 158.7708 155.0671 148.228 137.5143 119.6926 103.8186 101.2945 99.65553 91.74156 79.45017 71.55237 59.67072 50.91466 49.02666 59.86053 71.88551 76.7132 86.2419 91.47328 93.78149 88.82464 81.09683 100.3653 122.5097 130.8157 133.1423 140.6258 148.0313 146.233 142.7708 134.6608 130.2048 130.4745 133.0515 133.5301 124.547 121.1149 115.4541 111.4184 116.4862 115.8779 108.7667 106.3624 100.9191 93.02292 86.44364 60.29564 37.97627 39.4303 47.58692 58.37241 69.06326 77.06774 84.07291 94.96297 104.2799 108.6584 115.8049 127.1991 136.0721 143.1374 149.5697 158.3295 166.3649 
110.9926 113.8629 127.4145 133.0908 129.0691 129.1668 134.9927 141.568 138.1898 131.2386 134.1059 138.8134 138.938 136.6029 132.4738 124.2222 114.3036 117.9997 125.0958 124.4449 125.0246 131.1341 136.0895 138.7113 142.6796 146.418 153.5513 157.6025 159.5831 159.9905 164.8988 164.8872 158.2935 151.3529 148.6499 140.1736 122.5148 110.4706 107.9307 105.5267 95.1312 79.43234 68.93244 66.72468 58.06344 51.78017 55.53289 63.0212 71.89848 81.77959 85.39253 87.48803 90.66251 84.79417 90.08939 107.2238 122.0281 125.9828 131.0987 138.0358 139.9236 134.569 131.4202 129.3035 126.5265 126.7508 121.7782 115.0501 111.6473 109.0847 105.9049 105.1658 105.5754 105.8977 105.5493 105.6335 97.33617 89.38662 64.5976 40.72331 39.01913 48.79858 57.4878 62.91212 71.49789 81.05322 90.91606 95.79055 102.9232 117.1946 134.7409 141.9835 147.2839 155.7256 164.6519 174.8034 
103.8654 113.2349 121.2033 124.5069 127.878 126.1778 128.6381 132.6993 128.5397 125.7737 130.9839 136.4108 138.974 137.0536 129.5166 119.9389 110.1264 108.4577 118.2206 118.6332 122.5468 127.1064 130.6485 136.4935 140.5596 143.899 149.93 152.2518 157.5233 162.2839 168.6165 165.6282 158.566 155 154.3145 147.0704 132.3949 118.5946 113.9037 112.1673 101.1342 82.32225 70.07478 68.80868 61.75273 54.38485 53.34248 55.61669 64.41382 73.24464 77.54263 80.10511 87.23007 88.09865 85.3109 94.15155 111.5293 121.2814 125.7203 129.4172 130.1398 128.339 127.6418 126.811 128.0609 125.9628 118.3219 109.5522 107.2715 114.1775 109.4364 102.8931 100.98 101.9608 103.918 104.1871 98.59846 96.14752 76.61588 49.71217 41.04512 50.28393 57.79375 62.93287 73.16095 82.13933 89.5136 98.29674 111.8336 133.892 146.9892 149.5653 155.9247 163.9584 170.8072 176.8976 
102.1008 108.2529 115.7072 118.8913 124.6381 125.2787 132.1021 131.773 132.2959 127.4865 125.9565 125.9211 125.6215 125.609 120.4525 117.5028 105.3052 104.8193 115.4775 121.4032 125.5203 127.5938 130.7766 133.5156 137.5943 142.2972 146.8508 150.119 155.0106 157.8711 160.1647 159.1768 157.9588 155.7478 151.9583 150.5237 138.3251 126.6404 120.8475 113.4202 101.2152 83.86467 77.33641 75.85512 68.93969 56.19392 49.44407 51.52615 57.03277 62.43609 70.4496 74.05775 85.51066 87.66585 81.36777 85.34625 97.56642 111.8566 113.7242 117.259 115.6351 115.4373 117.2266 119.4865 126.6245 129.5406 120.3406 111.8981 115.6583 119.1891 113.2397 102.2481 94.68439 90.82465 89.51864 90.64702 89.59599 82.5192 67.96613 53.12701 48.99822 52.42543 59.32708 63.60385 73.6629 85.51192 94.3963 109.09 123.2992 138.4485 144.5827 151.9159 159.7241 166.6907 172.5891 176.1855 
106.9121 111.9349 115.9086 116.5284 119.2977 122.1446 128.0772 128.6711 129.6143 122.6262 116.4867 117.7394 118.4375 121.7456 120.5827 114.1019 108.3818 103.8493 116.4464 124.4344 126.7182 129.5333 134.0707 137.0938 140.5179 144.5933 145.8613 151.998 153.3714 153 156.1096 157.0496 157.4487 155.4809 152.4678 151.2053 141.4265 131.7785 123.4844 112.0993 98.71912 86.84891 82.61417 81.96067 73.56177 60.61652 49.90676 45.6982 50.89758 56.25009 62.81168 67.82057 79.43347 83.83061 82.80077 81.03813 87.0155 98.00376 103.517 107.9115 104.6027 101.6344 103.3571 110.4307 122.1722 126.5305 123.5441 118.4905 118.0448 117.496 110.5308 100.5544 93.36638 86.96522 79.54443 77.53236 74.19844 66.01247 60.62878 57.83932 53.82979 48.0654 52.51525 64.32433 80.48418 94.1433 105.3721 115.8667 126.8545 139.004 144.2392 150.3981 158.5948 168.276 173.5723 179.6928 
110.3243 120.6561 118.5831 116.4124 119.3206 118.4617 118.8963 119.1556 119.9539 115.3623 113.8434 114.6806 117.7194 122.6293 122.7501 117.6041 110.1756 102.8314 107.9604 126.1315 125.0144 124.827 134.8479 141.85 145.1633 143.8913 146.2285 152.5562 155.8942 155.0574 151.7355 151.5714 151.4361 151.946 153.3416 155.6825 148.0356 134.7662 127.6106 118.2783 103.5034 94.2695 91.74982 89.14281 77.9987 61.25817 47.52998 34.08665 37.0378 46.92986 55.54275 63.98788 73.92659 78.77637 80.6042 76.57291 76.40024 82.43869 94.84964 98.92696 100.7981 96.91373 97.71823 105.0041 112.4897 117.9646 120.2046 117.5767 115.4014 114.1664 104.4647 95.07083 94.02408 83.40985 73.45592 71.45711 70.46889 62.42725 60.40142 60.32941 53.51665 45.31124 42.47599 56.0285 82.26999 103.1653 110.6751 123.1067 129.0705 140.3143 144.8246 153.5935 161.8336 172.3281 179.0927 183.4352 
113.3397 128.6549 120.3774 120.008 122.1321 119.7399 117.5094 115.4192 114.1061 110.8048 109.6592 111.3134 116.9626 122.4547 123.0198 121.9944 118.5643 111.9083 104.7344 125.2079 125.208 121.6225 128.8707 135.944 142.0318 142.4284 143.7515 145.3264 153.6588 153.3055 147.7991 148.3086 149.0856 151.4798 159.058 165.9937 158.5017 141.3412 134.8108 122.931 105.1926 98.93703 94.21862 89.42076 79.04564 61.07188 49.03541 36.89803 36.24428 42.09522 55.67781 62.79529 67.02395 72.87018 74.38893 72.43692 70.25507 73.06963 82.31802 93.72763 99.43092 97.31662 101.5439 108.6324 114.6645 119.4709 122.3258 120.1304 118.8018 111.0182 102.5222 102.8488 99.23342 89.54958 84.56311 81.61029 78.09739 70.25762 65.79491 55.38168 46.61793 42.11957 38.35715 49.29579 74.20901 93.60657 102.5817 115.2477 127.607 136.1624 141.233 157.0473 163.8587 167.2828 173.4328 176.8882 
119.4728 125.5064 120.0628 123.0431 128.0116 120.3535 117.0551 112.2406 110.9024 108.1015 105.0692 107.9306 111.663 115.5867 115.6194 116.6803 117.3281 112.4024 107.9102 114.7202 118.6569 122.3982 126.3685 131.7859 133.9991 141.0305 145.958 144.8914 146.7725 148.6174 150.3835 148.9543 147.603 150.2062 159.3633 162.1254 157.541 149.6282 138.9059 121.3098 110.2178 102.1073 92.22066 84.71114 75.75012 68.87341 52.58311 39.28115 35.82909 42.2919 52.81297 59.31475 62.13262 64.39236 68.58705 68.42107 67.74354 66.96971 73.91669 88.78223 95.63321 99.14867 108.2026 116.973 122.7327 122.2251 120.0964 119.3134 117.8286 112.3833 105.098 107.8409 107.0815 101.3231 94.94296 92.62788 91.81233 84.55215 72.18369 54.57157 43.89458 40.55761 38.17966 51.28925 70.4944 83.80859 94.62059 107.9397 120.409 136.2633 144.7095 157.1742 161.2688 158.437 164.3819 172.0164 
116.5396 117.5506 118.7235 120.9336 121.8131 118.3216 116.8192 115.2742 110.2767 103.2076 98.91708 105.1973 108.6393 110.8053 112.3382 115.2614 120.2116 110.2338 106.0128 110.1983 118.5682 130.5999 134.0646 133.8864 137.4607 144.0368 145.4266 145.2029 144.4788 145.5773 147.6098 148.8148 147.0253 146.1653 147.5655 151.3385 148.4662 148.135 136.6934 120.7103 115.3273 107.2747 96.59471 85.92464 76.42343 68.00449 58.60862 46.16999 35.53569 44.04667 49.01975 53.40497 61.40609 62.38729 61.5656 62.884 62.67574 61.27418 65.9019 82.13873 93.60741 101.1694 109.9326 122.5842 130.4071 122.9155 114.2613 114.9493 117.8333 113.5221 105.377 105.8496 110.5134 108.5299 103.9931 100.5078 98.22454 83.29687 68.40221 55.99815 46.75714 42.52517 39.86259 54.94039 70.88099 80.58673 91.25795 102.2477 115.5121 131.6512 141.7905 152.5043 155.5145 153.3997 157.3285 168.3539 
118.2715 116.8781 117.9853 120.6603 113.2164 113.5121 116.3628 115.535 108.5531 103.0184 102.9268 105.0686 106.7288 110.0303 113.9622 121.7701 121.5096 114.1508 109.2526 110.4895 115.9077 129.7644 134.5578 134.7444 136.6723 145.3401 147.5425 147 147.1462 141.5636 141.0944 142.0897 146.5182 150.666 151.7369 149.9209 150.2487 147.3612 137.9516 123.5853 115.4736 108.4032 99.4285 88.50977 78.3356 69.38011 61.13938 49.40892 37.55149 40.50263 41.43394 44.83915 53.9156 57.87733 56.66651 59.78822 60.29504 56.61934 59.41377 79.98923 96.24339 101.4467 106.0531 117.7843 124.382 119.4792 111.935 114.5619 118.5301 115.0329 107.5816 107.7125 111.4072 110.938 106.4035 103.6127 91.39995 75.83463 68.2715 62.50438 52.9206 43.40269 40.8747 53.11003 66.44324 72.81557 83.76392 97.96819 112.9549 126.8206 137.6633 145.5528 151.3831 155.0036 158.3351 162.6112 
109.9504 112.7926 116.4102 119.9949 116.6368 112.9959 112.0316 107.257 106.4043 109.1695 107.0386 105.7756 105.1879 106.1022 113.6849 123.2575 119.2109 119.0599 113.5814 111.2251 115.0331 126.9258 130.6343 133.8149 135.7829 138.3764 142.0259 142.2717 143.571 140.0006 135.8293 134.78 139.8449 148.5837 148.9682 151.2429 151.2529 144.5638 136.9857 125.6829 111.7312 108.2975 100.9673 86.25761 77.07092 71.2282 55.58758 41.91186 35.16809 36.45283 36.54192 37.52187 44.31535 47.02002 45.22376 58.40237 65.15016 60.91633 49.16372 76.45018 98.72556 106.0557 113.6566 123.5401 124.6828 113.2601 112.071 113.7703 114.497 114.638 112.5871 115.5237 113.0532 108.9904 105.7433 103.5008 93.85358 78.90686 71.26743 66.31463 55.52949 48.76773 42.66473 46.73592 60.5219 67.21172 78.27305 94.45962 108.1203 119.9405 132.9211 144.1631 149.5412 153.7911 153.5951 152.5315 
94.12674 101.4651 111.1466 116.5917 114.5845 109.4918 105.2144 104.3018 108.1037 110.5108 117.0481 115.1869 110.6339 112.2958 116.1367 118.9373 121.7094 120.8888 114.8242 107.545 108.0191 118.4197 126.5154 129.9005 131.1376 133.3661 133.8536 135.5614 136.08 135.3527 134.0383 134.0024 134.5443 140.4694 142.9059 145.6519 147.8541 140.8706 134.5727 124.4808 114.0965 107.6481 96.15106 84.74964 79.82533 72.81431 55.19218 43.24386 38.05331 34.30283 29.92847 29.96854 34.13527 37.04964 35.44682 57.10825 66.38394 59.72348 49.99102 71.13982 106.4138 122.3969 127.8134 129.1346 126.2591 115.9987 113.6545 112.0985 112.8811 115.8709 116.6696 116.8561 115.4206 111.8452 104.8197 104.807 99.0321 88.75639 74.92432 60.71122 56.20554 54.56998 44.84024 45.29023 60.07549 66.80814 73.48377 82.27688 95.27464 114.849 123.3738 131.8067 142.0699 152.2254 150.7615 146.8023 
88.40788 95.38638 101.6245 108.7891 112.3943 113.5249 104.9347 104.2439 108.8685 111.9653 118.7141 120.8093 119.919 121.2414 122.1758 120.0633 118.1126 118.7025 116.923 107.2957 98.89575 113.6112 127.2478 126.2144 126.407 128.5222 126.4202 129.2654 132.8785 133.355 134.6095 138.6707 137.5495 132.6914 130.4723 135.7332 140.7329 138.0993 133.3849 122.4119 112.159 110.0636 102.2457 91.24531 86.61298 76.35873 64.10009 58.58438 55.92357 46.72548 34.33886 27.80046 26.05358 29.7173 36.77607 54.28329 62.89162 61.06017 53.76296 67.11613 107.4633 126.6315 129.3963 128.7086 125.8278 118.6364 114.2818 115.1602 114.5163 118.8249 117.312 116.3555 116.8914 116.6604 112.5244 111.1692 105.869 97.83064 82.6319 66.80318 61.81086 57.13328 44.93497 43.64602 60.22718 68.74124 74.13093 75.98725 82.70539 98.61652 112.1239 122.0099 133.2903 143.4169 146.2478 143.6266 
86.17168 92.40661 98.32914 105.086 110.8704 108.8095 105.6844 109.2738 112.2855 116.5492 118.4917 124.7755 126.5311 125.1943 124.3179 122.8801 117.3443 114.8931 114.2294 109.2824 93.3244 103.8039 123.3648 124.4223 120.5044 119.8834 122.6487 125.6274 129.8891 130.7135 133.7804 138.8988 139.7701 133.774 130.873 135.285 133.7107 133.263 129.5984 118.8092 113.8496 117.1618 117.9724 109.7139 97.87132 83.13545 68.1642 63.44825 61.25457 56.43129 47.40097 32.78716 25.7334 28.89639 34.07629 52.67297 61.73543 62.5631 66.24761 67.46795 99.28644 119.6588 126.8881 127.1525 126.2757 122.0038 117.9158 117.5507 117.9393 121.7859 115.3156 113.8812 114.9861 118.0073 118.8823 116.8278 112.7738 101.3205 87.43598 78.48228 69.67966 59.7422 43.53911 37.79356 48.72327 59.91772 70.86953 74.14928 75.35767 81.04535 96.62998 113.5441 123.7302 129.7664 132.899 133.8089 
90.07613 95.59898 99.96976 105.1743 111.8412 108.1774 101.7989 104.1995 109.8754 118.9213 119.531 127.4294 127.1364 119.2321 116.0745 119.6779 120.6242 118.6125 112.7966 108.3336 103.6703 96.02717 114.714 123.1523 122.6854 123.6293 126.2055 127.6385 129.0303 129.9201 133.0764 139.5164 132.7236 135.318 136.9879 131.2475 124.3685 124.3552 120.6008 115.2968 114.754 120.8951 125.6236 121.6444 104.8461 89.27272 67.75636 59.47546 58.63084 61.58615 56.76658 40.63886 29.09413 29.63773 36.65856 53.26474 62.564 66.8896 71.86919 64.41621 96.85381 115.1176 123.1638 126.7178 124.1271 121.97 119.7305 119.2272 121.9715 119.1397 111.4183 110.6916 112.5847 118.4109 122.3463 121.746 116.2581 106.9086 95.98709 82.92373 70.2261 54.13136 41.71901 35.31949 42.62901 55.52199 66.60482 74.31446 74.92882 77.05563 85.7635 98.2769 110.3039 114.8632 119.2191 126.2079 
94.68795 99.96828 104.3148 105.7959 109.7047 106.2016 100.4238 102.0806 112.9955 117.9393 118.8673 117.4899 116.0761 110.1535 110.1563 110.5108 116.3367 119.6006 111.4879 103.4006 102.817 102.7673 114.8071 122.4819 120.7705 124.3439 123.7959 124.3103 127.3851 127.1084 129.5325 134.9001 129.5016 131.7527 132.1163 123.678 119.835 118.3864 112.9296 112.081 116.86 120.9315 121.1597 116.9165 109.0314 94.86533 80.49025 69.99017 65.58357 64.20103 58.65326 45.34807 30.97496 27.08479 33.20885 51.37108 59.01729 65.51625 66.91 67.60973 97.13921 111.4397 115.2958 119.0211 119.2808 118.485 116.0765 117.7241 118.7477 116.0818 111.6893 107.7703 112.1189 120.0392 124.1163 126.183 119.199 107.6763 95.02773 88.001 72.69027 52.01962 38.09111 32.09956 39.95841 54.93855 61.99344 67.40125 69.16458 75.34444 82.8896 88.5687 100.9807 108.971 112.3245 118.3501 
96.79036 104.3848 109.3026 108.2567 108.7995 106.7579 106.0539 107.8952 115.1896 117.5656 117.9413 111.5728 110.364 106.0344 106.4336 102.6314 104.5398 112.2893 110.8059 107.177 106.5355 106.7738 115.6898 121.5854 121.3769 116.9825 120.9861 123.173 123.6356 125.7458 128.0766 131.7039 127.7971 125.7946 122.0331 120.7355 116.492 114.9093 110.5586 114.1775 115.0695 116.9464 112.3663 110.1752 108.7672 99.68285 88.35545 79.54213 74.39143 62.64661 57.41346 50.85923 36.39278 24.50917 29.55833 49.97142 59.47294 63.62843 68.77252 77.96877 94.1758 104.221 109.0901 112.659 116.7624 119.7857 114.7029 111.8565 115.6835 117.6488 115.4997 112.7083 113.0574 119.3006 124.2007 125.9877 125.3387 113.1678 99.37143 94.09382 78.69413 49.8956 30.76467 26.87698 33.05394 47.56919 55.70505 57.87162 61.06752 66.63654 76.02016 84.84535 97.14162 102.2901 100.7219 105.4407 
99.44478 101.4093 108.2417 110.4697 110.0706 105.1241 105.717 107.8484 109.9592 114.717 118.5459 117.2285 112.3132 104.2753 104 99.97479 101.064 106.668 113.7774 114.2722 111.5134 100.1977 106.6941 115.2742 118.6825 114.9377 120.0007 120.0764 118.1145 122.715 126.636 127.6834 122.7113 119.6523 115.924 112.4606 111.7822 111.8469 114.2908 115.5046 114.8129 112.6015 109.259 107.7276 107.9046 100.1537 89.72878 82.97384 74.38645 60.44083 53.26527 45.35114 37.53397 26.51881 29.80024 44.42278 58.89709 63.85526 65.75531 72.03928 82.36536 93.78677 104.1435 108.9091 112.3438 116.7058 112.8691 110.5257 116.0464 118.1259 118.9785 117.5808 113.116 116.2321 122.2334 124.2286 123.969 115.2429 103.1193 89.86234 77.52211 55.39641 32.50839 25.94975 28.10023 39.92581 45.16093 50.39486 58.08415 63.60647 72.69023 85.74843 99.28889 101.2758 99.59605 102.675 
97.10436 103.2317 106.0824 105.8288 107.7259 106.4556 108.117 112.4569 113.9957 113.9411 117.0846 119.1867 111.0503 103.4118 102.4742 101.7682 99.14683 101.8473 113.6495 114.7015 110.0391 97.32713 102.0938 107.1327 111.8307 120.2151 120.0146 115.2912 111.5843 120.6715 124.0799 120.2505 117.1286 110.6651 101.619 104.6317 108.8111 110.4865 113.6674 112.965 109.6577 108.1698 106.0377 105.9843 103.664 95.29481 86.6275 81.55403 66.60809 56.07835 48.62532 37.82206 32.0873 30.99592 33.76467 41.28257 57.13265 62.15592 61.21826 64.17931 75.82832 84.50314 92.34616 98.52556 105.7725 111.4685 110.1645 110.1285 113.4948 118.6303 120.2466 118.4985 115.017 115.2455 115.84 119.5876 121.1374 112.1323 101.9396 92.88622 83.52293 65.90623 44.85353 34.57887 33.92225 36.16297 40.87494 48.95755 53.76217 57.64733 69.53179 84.2109 92.83418 99.26546 100.4527 102.7446 
92.56493 102.1826 98.33006 98.8102 101.9328 106.8421 112.35 116.2353 116.1842 116.0294 115.5054 115.8914 108.4367 103.2747 101.2007 101.9659 100.074 103.2112 110.5749 113.7253 107.2646 104.149 100.3772 101.1634 107.6097 120.7648 116.6712 114.0838 111.0586 116.1619 120.9715 117.7353 113.0862 108.0046 99.63408 102.3696 111.0972 110.9476 102.976 107.7999 107.8689 109.0815 109.2366 107.1193 97.41952 82.35691 79.41838 73.71396 61.28506 52.89547 44.46611 37.49215 32.4389 32.30473 33.62365 38.88164 57.03384 65.2813 63.51499 61.53996 74.1181 80.28859 89.24408 97.47269 104.2313 109.5703 111.5599 109.3773 111.8537 120.6536 124.5219 118.7956 111.6622 114.7456 112.812 116.7297 119.8057 110.9194 101.7678 97.45453 90.48244 76.67366 66.40324 42.7767 34.51052 35.91353 39.32642 45.15921 50.16062 55.06979 68.86796 79.14336 83.78284 92.44118 101.2448 105.6851 
95.24734 97.70209 93.26106 96.10957 99.55518 105.3612 110.1006 112.3662 116.6657 116.0566 111.5154 108.9784 108.2798 107.1623 106.3342 107.5255 105.0267 106.3623 108.5478 110.298 113.0521 102.1481 100.2592 99.99465 104.8384 112.6238 115.5057 115.6541 117.8611 119.9949 118.7174 113.7533 109.0119 110.4003 106.2216 108.5007 116.3135 108.5997 93.76347 105.2425 113.9366 114.4354 117.7712 113.731 102.7252 85.4304 75.66048 66.49655 58.3166 50.81525 42.13015 37.34242 34.31319 31.03725 30.34564 35.13056 53.44941 60.65931 56.81761 54.87478 72.02049 80.42072 91.03323 99.18563 106.4908 113.4348 114.1425 110.674 110.9534 117.1638 120.2935 114.0281 108.0629 106.6862 108.1623 110.5467 112.9638 108.0917 103.9669 100.5219 91.56213 85.01019 72.05824 41.94915 32.45593 32.39221 34.12674 37.53334 50.79146 58.46996 62.04154 72.1907 75.88991 83.48161 93.59916 95.99406 
